ply
format ascii 1.0
element vertex 1116
property float32 x
property float32 y
property float32 z
property float32 CosAngle
property uint32 ObjIdx
property uint32 ObjTag
property float32 I
end_header
17.1506 -32.5312 2.0976 57.1963 0 0 0.8630
17.2384 -32.4862 2.0976 57.1943 0 0 0.8630
17.3261 -32.4412 2.0977 57.1919 0 0 0.8630
17.4350 -32.4355 2.1004 46.8732 0 0 0.8628
18.3625 -33.2998 2.1690 23.7407 0 0 0.8587
18.3938 -33.1463 2.1622 37.6665 0 0 0.8591
18.4817 -33.0953 2.1621 56.1045 0 0 0.8591
18.6007 -33.0996 2.1656 42.2449 0 0 0.8589
18.7350 -33.1303 2.1709 42.1421 0 0 0.8586
18.9038 -33.2207 2.1801 17.8122 0 0 0.8580
22.0868 -33.1995 2.2744 23.4796 0 0 0.8523
22.1279 -33.0688 2.2695 23.5303 0 0 0.8526
22.1689 -32.9386 2.2646 23.5808 0 0 0.8529
16.4597 -24.3149 1.6748 26.4546 0 0 0.8890
16.4717 -24.1927 1.6694 43.8711 0 0 0.8894
16.5169 -24.1199 1.6674 54.6119 0 0 0.8895
16.5787 -24.0715 1.6671 56.9150 0 0 0.8895
16.6558 -24.0451 1.6684 50.4653 0 0 0.8894
16.7557 -24.0514 1.6719 36.1912 0 0 0.8892
22.4496 -32.0411 2.2315 23.7285 0 0 0.8549
22.4844 -31.9083 2.2264 23.7824 0 0 0.8552
22.5190 -31.7761 2.2214 23.8361 0 0 0.8555
22.5534 -31.6446 2.2165 23.8897 0 0 0.8558
22.5877 -31.5137 2.2115 23.9430 0 0 0.8561
22.6219 -31.3834 2.2066 23.9961 0 0 0.8564
22.6560 -31.2537 2.2018 24.0491 0 0 0.8567
22.6899 -31.1245 2.1969 24.1019 0 0 0.8570
22.7237 -30.9960 2.1922 24.1544 0 0 0.8573
22.7573 -30.8680 2.1874 24.2068 0 0 0.8576
22.7909 -30.7407 2.1827 24.2590 0 0 0.8579
22.8243 -30.6138 2.1780 24.3109 0 0 0.8581
22.8816 -30.5197 2.1757 39.4304 0 0 0.8583
22.9536 -30.4453 2.1748 39.4471 0 0 0.8583
23.0255 -30.3711 2.1739 39.4635 0 0 0.8584
23.0974 -30.2969 2.1730 39.4796 0 0 0.8584
23.1693 -30.2228 2.1721 39.4954 0 0 0.8585
23.2411 -30.1487 2.1713 39.5109 0 0 0.8585
23.3129 -30.0747 2.1704 39.5261 0 0 0.8586
23.3846 -30.0008 2.1696 39.5410 0 0 0.8586
23.4562 -29.9270 2.1688 39.5556 0 0 0.8587
23.5279 -29.8532 2.1680 39.5700 0 0 0.8587
23.5995 -29.7795 2.1673 39.5840 0 0 0.8588
23.6710 -29.7058 2.1665 39.5977 0 0 0.8588
23.7425 -29.6322 2.1658 39.6111 0 0 0.8589
23.8140 -29.5587 2.1651 39.6242 0 0 0.8589
23.8854 -29.4852 2.1644 39.6370 0 0 0.8590
23.9568 -29.4118 2.1637 39.6495 0 0 0.8590
24.0281 -29.3385 2.1630 39.6617 0 0 0.8590
24.0995 -29.2652 2.1624 39.6736 0 0 0.8591
24.1708 -29.1919 2.1617 39.6852 0 0 0.8591
24.2420 -29.1187 2.1611 39.6965 0 0 0.8592
24.3132 -29.0456 2.1605 39.7075 0 0 0.8592
24.3845 -28.9725 2.1599 39.7182 0 0 0.8592
24.4634 -28.9087 2.1601 39.5927 0 0 0.8592
24.5487 -28.8523 2.1608 39.5799 0 0 0.8592
24.6341 -28.7959 2.1615 39.5668 0 0 0.8591
24.7196 -28.7395 2.1622 39.5534 0 0 0.8591
24.8052 -28.6831 2.1629 39.5397 0 0 0.8590
24.8908 -28.6266 2.1637 39.5258 0 0 0.8590
24.9764 -28.5701 2.1645 39.5115 0 0 0.8590
25.0622 -28.5136 2.1653 39.4969 0 0 0.8589
25.1480 -28.4571 2.1661 39.4820 0 0 0.8589
25.2339 -28.4005 2.1669 39.4668 0 0 0.8588
25.3199 -28.3438 2.1678 39.4513 0 0 0.8588
25.4060 -28.2872 2.1687 39.4355 0 0 0.8587
25.4921 -28.2305 2.1696 39.4194 0 0 0.8586
25.5783 -28.1738 2.1705 39.4030 0 0 0.8586
25.6646 -28.1170 2.1714 39.3864 0 0 0.8585
25.7510 -28.0602 2.1723 39.3694 0 0 0.8585
25.8374 -28.0034 2.1733 39.3521 0 0 0.8584
25.9248 -27.9474 2.1743 24.1189 0 0 0.8584
26.0637 -27.9465 2.1797 24.0597 0 0 0.8580
26.2033 -27.9456 2.1851 24.0002 0 0 0.8577
26.3242 -27.9242 2.1889 29.9387 0 0 0.8575
26.4002 -27.8548 2.1890 29.9372 0 0 0.8575
26.4762 -27.7855 2.1891 29.9356 0 0 0.8575
26.5523 -27.7162 2.1893 29.9337 0 0 0.8575
25.9467 -26.9391 2.1334 27.1655 0 0 0.8608
26.1376 -26.9922 2.1431 27.0420 0 0 0.8602
29.9199 -0.8022 1.7072 57.1823 130 4 0.8870
29.9199 -0.7220 1.7071 57.1862 130 4 0.8870
29.9199 -0.6417 1.7070 57.1896 130 4 0.8870
29.9199 -0.5615 1.7069 57.1927 130 4 0.8870
29.9199 -0.4813 1.7068 57.1954 130 4 0.8870
29.9199 -0.4010 1.7067 57.1977 130 4 0.8870
29.9199 -0.3208 1.7067 57.1995 130 4 0.8870
29.9199 -0.2406 1.7066 57.2010 130 4 0.8870
29.9199 -0.1604 1.7066 57.2020 130 4 0.8870
29.9199 -0.0802 1.7066 57.2026 130 4 0.8870
25.7834 1.7999 1.4742 3.8347 132 4 0.9016
24.7907 1.7974 1.4177 3.9875 132 4 0.9052
23.8712 1.7950 1.3654 4.1403 132 4 0.9085
23.0172 1.7929 1.3168 4.2930 132 4 0.9117
22.2219 1.7909 1.2716 4.4457 132 4 0.9146
21.4794 1.7890 1.2294 4.5984 132 4 0.9173
20.7846 1.7872 1.1899 4.7510 132 4 0.9198
20.6789 1.8340 1.1841 56.9791 132 4 0.9202
20.6789 1.8899 1.1844 56.9654 132 4 0.9202
20.6789 1.9458 1.1847 56.9512 132 4 0.9202
20.6789 2.0017 1.1850 56.9367 132 4 0.9201
20.6789 2.0577 1.1853 56.9217 132 4 0.9201
20.6789 2.1137 1.1856 56.9063 132 4 0.9201
20.6789 2.1697 1.1860 56.8905 132 4 0.9201
20.6789 2.2258 1.1863 56.8743 132 4 0.9200
20.6789 2.2818 1.1866 56.8577 132 4 0.9200
20.6789 2.3380 1.1870 56.8407 132 4 0.9200
20.6789 2.3941 1.1874 56.8232 132 4 0.9200
20.6789 2.4503 1.1877 56.8054 132 4 0.9200
20.6789 2.5065 1.1881 56.7871 132 4 0.9199
20.6789 2.5628 1.1885 56.7685 132 4 0.9199
20.6789 2.6191 1.1889 56.7494 132 4 0.9199
20.6789 2.6755 1.1893 56.7300 132 4 0.9199
20.6789 2.7318 1.1897 56.7101 132 4 0.9198
20.6789 2.7883 1.1902 56.6898 132 4 0.9198
20.6789 2.8447 1.1906 56.6691 132 4 0.9198
20.6789 2.9012 1.1910 56.6480 132 4 0.9197
20.6789 2.9578 1.1915 56.6265 132 4 0.9197
20.6789 3.0143 1.1920 56.6046 132 4 0.9197
20.6789 3.0710 1.1924 56.5823 132 4 0.9197
20.6789 3.1276 1.1929 56.5595 132 4 0.9196
20.6789 3.1844 1.1934 56.5364 132 4 0.9196
20.6789 3.2411 1.1939 56.5129 132 4 0.9196
20.6789 3.2980 1.1944 56.4889 132 4 0.9195
20.6789 3.3548 1.1949 56.4646 132 4 0.9195
20.6789 3.4117 1.1954 56.4398 132 4 0.9195
20.6789 3.4687 1.1960 56.4146 132 4 0.9194
20.6789 3.5257 1.1965 56.3891 132 4 0.9194
20.6789 3.5828 1.1971 56.3631 132 4 0.9194
20.6789 3.6399 1.1976 56.3367 132 4 0.9193
20.6789 3.6971 1.1982 56.3099 132 4 0.9193
20.6789 3.7543 1.1988 56.2827 132 4 0.9192
20.6789 3.8116 1.1994 56.2552 132 4 0.9192
20.6789 3.8689 1.2000 56.2272 132 4 0.9192
20.6789 3.9263 1.2006 56.1988 132 4 0.9191
20.5205 3.9533 1.1920 10.8211 132 4 0.9197
20.5194 4.0101 1.1925 56.1407 132 4 0.9196
20.5194 4.0673 1.1932 56.1111 132 4 0.9196
20.5194 4.1245 1.1938 56.0811 132 4 0.9196
20.5194 4.1817 1.1945 56.0507 132 4 0.9195
20.5194 4.2390 1.1951 56.0199 132 4 0.9195
20.5194 4.2964 1.1958 55.9887 132 4 0.9194
20.5194 4.3539 1.1964 55.9570 132 4 0.9194
20.5194 4.4114 1.1971 55.9250 132 4 0.9193
20.6789 4.5037 1.2071 55.8926 132 4 0.9187
27.7880 10.6042 1.6965 26.3555 0 0 0.8877
27.6869 10.6507 1.6920 26.4245 0 0 0.8879
27.5865 10.6970 1.6876 26.4933 0 0 0.8882
27.4819 10.7413 1.6830 24.6836 0 0 0.8885
27.4127 10.7991 1.6805 45.0952 0 0 0.8887
27.3679 10.8662 1.6795 45.1213 0 0 0.8887
27.3230 10.9333 1.6786 45.1470 0 0 0.8888
27.2779 11.0002 1.6776 43.1466 0 0 0.8888
27.2320 11.0666 1.6766 43.1724 0 0 0.8889
27.1863 11.1330 1.6756 43.1978 0 0 0.8890
27.1406 11.1994 1.6747 43.2229 0 0 0.8890
27.0949 11.2656 1.6737 43.2477 0 0 0.8891
27.0494 11.3318 1.6728 43.2721 0 0 0.8891
27.0038 11.3979 1.6718 43.2962 0 0 0.8892
26.9584 11.4640 1.6709 43.3200 0 0 0.8893
26.9129 11.5299 1.6700 43.3435 0 0 0.8893
26.8676 11.5959 1.6691 43.3666 0 0 0.8894
26.8223 11.6617 1.6682 43.3894 0 0 0.8894
26.7771 11.7275 1.6674 43.4119 0 0 0.8895
26.7319 11.7932 1.6665 43.4341 0 0 0.8895
26.6868 11.8588 1.6657 43.4559 0 0 0.8896
26.6417 11.9244 1.6649 43.4775 0 0 0.8896
26.5967 11.9900 1.6640 43.4986 0 0 0.8897
26.5517 12.0554 1.6632 43.5195 0 0 0.8897
26.5068 12.1208 1.6625 43.5400 0 0 0.8898
26.4619 12.1862 1.6617 43.5602 0 0 0.8898
26.4171 12.2515 1.6609 43.5801 0 0 0.8899
26.3723 12.3167 1.6602 43.5997 0 0 0.8899
26.3276 12.3819 1.6595 43.6189 0 0 0.8900
26.2829 12.4470 1.6587 43.6378 0 0 0.8900
26.2383 12.5121 1.6580 43.6564 0 0 0.8901
26.1937 12.5772 1.6573 43.6746 0 0 0.8901
26.1492 12.6421 1.6567 43.6926 0 0 0.8901
26.1047 12.7071 1.6560 43.7101 0 0 0.8902
26.0603 12.7720 1.6553 43.7274 0 0 0.8902
26.0158 12.8368 1.6547 43.7443 0 0 0.8903
25.9715 12.9016 1.6541 43.7609 0 0 0.8903
25.9271 12.9663 1.6535 43.7772 0 0 0.8903
25.8829 13.0310 1.6529 43.7932 0 0 0.8904
25.8386 13.0957 1.6523 43.8088 0 0 0.8904
25.7944 13.1603 1.6517 43.8241 0 0 0.8905
25.7503 13.2249 1.6511 43.8390 0 0 0.8905
25.7062 13.2894 1.6506 43.8537 0 0 0.8905
25.6621 13.3540 1.6500 43.8680 0 0 0.8906
25.6180 13.4184 1.6495 43.8820 0 0 0.8906
25.5740 13.4828 1.6490 43.8956 0 0 0.8906
25.5300 13.5472 1.6485 43.9089 0 0 0.8907
25.4861 13.6116 1.6480 43.9219 0 0 0.8907
25.4422 13.6759 1.6475 43.9346 0 0 0.8907
25.3983 13.7402 1.6471 43.9469 0 0 0.8907
25.3545 13.8045 1.6466 43.9589 0 0 0.8908
25.3106 13.8687 1.6462 43.9706 0 0 0.8908
25.2668 13.9329 1.6458 43.9819 0 0 0.8908
25.2231 13.9971 1.6453 43.9929 0 0 0.8909
25.1794 14.0612 1.6449 44.0036 0 0 0.8909
25.1357 14.1254 1.6446 44.0140 0 0 0.8909
25.0920 14.1895 1.6442 44.0240 0 0 0.8909
25.0484 14.2535 1.6438 44.0337 0 0 0.8910
25.0047 14.3176 1.6435 44.0430 0 0 0.8910
24.9612 14.3816 1.6431 44.0521 0 0 0.8910
24.9176 14.4456 1.6428 44.0607 0 0 0.8910
24.8741 14.5096 1.6425 44.0691 0 0 0.8910
24.8306 14.5736 1.6422 44.0772 0 0 0.8911
24.7871 14.6375 1.6419 44.0849 0 0 0.8911
28.7205 17.0643 1.9055 51.0242 0 0 0.8747
28.7938 17.2125 1.9134 36.0297 0 0 0.8742
28.8426 17.3468 1.9197 35.9110 0 0 0.8738
29.0357 17.5690 1.9357 29.0018 0 0 0.8729
28.8971 17.5912 1.9296 49.8002 0 0 0.8732
28.8070 17.6423 1.9267 49.8743 0 0 0.8734
28.7258 17.6987 1.9245 57.2884 0 0 0.8736
28.6796 17.7764 1.9246 57.2858 0 0 0.8736
28.6745 17.8798 1.9274 27.5758 0 0 0.8734
28.7672 18.0449 1.9369 27.3243 0 0 0.8728
16.4449 11.9210 1.1585 27.9286 0 0 0.9218
16.3567 11.9241 1.1545 45.0206 0 0 0.9221
16.2964 11.9471 1.1525 51.0879 0 0 0.9222
16.2496 11.9800 1.1515 55.1765 0 0 0.9223
16.2140 12.0209 1.1513 56.7120 0 0 0.9223
16.1893 12.0700 1.1518 54.1257 0 0 0.9223
16.1757 12.1275 1.1532 49.4546 0 0 0.9222
16.1772 12.1965 1.1556 34.3752 0 0 0.9220
16.2282 12.3032 1.1615 14.3133 0 0 0.9216
21.5714 17.3790 1.5800 13.7983 0 0 0.8950
21.6416 17.5314 1.5886 13.7238 0 0 0.8944
21.7127 17.6856 1.5973 13.6491 0 0 0.8939
21.7846 17.8415 1.6061 13.5743 0 0 0.8933
21.8573 17.9991 1.6150 13.4994 0 0 0.8928
21.9308 18.1586 1.6240 13.4244 0 0 0.8922
22.0035 18.3184 1.6330 15.2284 0 0 0.8916
22.0630 18.4683 1.6411 15.1534 0 0 0.8911
22.1232 18.6198 1.6493 15.0782 0 0 0.8906
22.4837 19.0264 1.6800 1.6142 0 0 0.8887
24.1120 20.5155 1.8057 1.5018 0 0 0.8809
18.8945 16.7879 1.4417 41.0501 0 0 0.9037
18.8011 16.7952 1.4380 41.1558 0 0 0.9039
18.7080 16.8025 1.4343 41.2612 0 0 0.9042
18.6155 16.8098 1.4306 41.3663 0 0 0.9044
18.5280 16.8212 1.4274 56.5276 0 0 0.9046
18.5162 16.9012 1.4299 44.9981 0 0 0.9044
18.5098 16.9866 1.4330 44.9034 0 0 0.9042
18.5034 17.0722 1.4360 44.8084 0 0 0.9041
18.4969 17.1583 1.4391 44.7130 0 0 0.9039
17.6129 17.3319 1.4094 49.2791 0 0 0.9057
17.5392 17.3522 1.4073 49.3553 0 0 0.9059
17.4658 17.3725 1.4051 49.4311 0 0 0.9060
17.3926 17.3927 1.4030 49.5066 0 0 0.9062
17.3321 17.4254 1.4018 49.5295 0 0 0.9062
17.3121 17.4988 1.4040 49.4530 0 0 0.9061
17.2920 17.5725 1.4062 49.3761 0 0 0.9059
17.2719 17.6464 1.4084 49.2989 0 0 0.9058
26.8855 27.7646 2.2044 36.7287 0 0 0.8565
26.7826 27.8071 2.2021 36.7676 0 0 0.8567
26.6799 27.8495 2.1998 36.8063 0 0 0.8568
26.5774 27.8918 2.1975 36.8447 0 0 0.8570
26.4752 27.9340 2.1952 36.8829 0 0 0.8571
26.3732 27.9762 2.1930 36.9207 0 0 0.8572
26.2713 28.0183 2.1907 36.9583 0 0 0.8574
26.1698 28.0603 2.1885 36.9955 0 0 0.8575
26.0684 28.1023 2.1864 37.0325 0 0 0.8576
25.9672 28.1441 2.1842 37.0692 0 0 0.8578
25.8662 28.1859 2.1820 37.1057 0 0 0.8579
25.7655 28.2277 2.1799 37.1418 0 0 0.8580
25.6650 28.2693 2.1778 37.1777 0 0 0.8582
25.5646 28.3109 2.1757 37.2133 0 0 0.8583
25.4645 28.3525 2.1737 37.2486 0 0 0.8584
25.3645 28.3939 2.1716 37.2836 0 0 0.8585
11.7004 15.0941 1.0893 20.5905 0 0 0.9263
11.7213 15.2051 1.0950 20.4825 0 0 0.9260
11.7424 15.3173 1.1008 20.3745 0 0 0.9256
11.7638 15.4307 1.1067 20.2662 0 0 0.9252
11.7854 15.5453 1.1127 20.1579 0 0 0.9248
11.8073 15.6612 1.1187 20.0493 0 0 0.9244
11.8294 15.7783 1.1248 19.9406 0 0 0.9240
11.8518 15.8968 1.1310 19.8318 0 0 0.9236
11.8744 16.0165 1.1372 19.7227 0 0 0.9232
11.8973 16.1376 1.1436 19.6136 0 0 0.9228
11.9204 16.2601 1.1500 19.5043 0 0 0.9224
11.9439 16.3840 1.1565 19.3948 0 0 0.9220
11.9676 16.5092 1.1630 19.2851 0 0 0.9216
11.9915 16.6360 1.1697 19.1753 0 0 0.9211
12.0158 16.7641 1.1764 19.0654 0 0 0.9207
12.0403 16.8939 1.1833 18.9553 0 0 0.9202
12.0652 17.0251 1.1902 18.8450 0 0 0.9198
12.0903 17.1579 1.1972 18.7346 0 0 0.9193
12.1158 17.2922 1.2043 18.6241 0 0 0.9189
12.1415 17.4282 1.2115 18.5134 0 0 0.9184
12.1676 17.5659 1.2188 18.4026 0 0 0.9179
12.1940 17.7052 1.2262 18.2916 0 0 0.9175
12.2208 17.8463 1.2337 18.1805 0 0 0.9170
12.2479 17.9891 1.2413 18.0692 0 0 0.9165
12.2753 18.1336 1.2490 17.9578 0 0 0.9160
12.3030 18.2800 1.2568 17.8463 0 0 0.9155
-5.8657 18.0858 1.0845 33.6060 0 0 0.9267
-5.8924 18.0036 1.0805 33.7299 0 0 0.9269
-5.9190 17.9221 1.0766 33.8534 0 0 0.9272
-5.9454 17.8412 1.0726 33.9768 0 0 0.9274
-5.9558 17.7142 1.0660 54.9084 0 0 0.9279
-5.9987 17.6847 1.0652 54.9503 0 0 0.9279
-6.0486 17.6759 1.0656 50.0954 0 0 0.9279
-6.1042 17.6836 1.0670 50.0275 0 0 0.9278
-6.1600 17.6913 1.0685 49.9593 0 0 0.9277
-6.2160 17.6990 1.0700 49.8907 0 0 0.9276
-6.2721 17.7067 1.0714 49.8218 0 0 0.9275
-6.3289 17.7163 1.0731 39.1412 0 0 0.9274
-6.4203 17.0989 1.0418 42.7975 0 0 0.9294
-6.4511 17.0419 1.0394 42.8973 0 0 0.9296
-6.4817 16.9851 1.0369 42.9969 0 0 0.9298
-6.5117 16.9275 1.0345 37.8697 0 0 0.9299
-6.5376 16.8598 1.0314 37.9825 0 0 0.9301
-6.5804 16.8361 1.0310 46.6642 0 0 0.9301
-6.6382 16.8506 1.0330 46.5751 0 0 0.9300
-6.6920 16.8545 1.0344 53.9629 0 0 0.9299
-6.7436 16.8527 1.0354 53.9112 0 0 0.9299
-6.7953 16.8508 1.0364 53.8591 0 0 0.9298
-6.8471 16.8490 1.0374 53.8066 0 0 0.9297
-7.7487 10.8108 0.7587 25.2349 0 0 0.9481
-7.8119 10.8375 0.7620 25.1243 0 0 0.9479
-7.8756 10.8644 0.7654 25.0136 0 0 0.9477
-7.9399 10.8916 0.7688 24.9026 0 0 0.9474
-8.0048 10.9190 0.7722 24.7915 0 0 0.9472
-8.0703 10.9467 0.7757 24.6801 0 0 0.9470
-18.7157 11.3246 1.2478 33.8840 0 0 0.9161
-18.6780 11.2335 1.2432 34.0075 0 0 0.9164
-18.6530 11.1505 1.2396 56.5934 0 0 0.9166
-18.6755 11.0961 1.2391 56.6155 0 0 0.9166
-18.6980 11.0418 1.2386 56.6372 0 0 0.9167
-18.7205 10.9875 1.2382 56.6585 0 0 0.9167
-18.7866 10.9586 1.2405 45.5376 0 0 0.9166
-18.8543 10.9305 1.2430 45.4446 0 0 0.9164
-19.0499 10.9758 1.2537 7.4134 0 0 0.9157
-23.0790 -24.3507 1.2548 27.5086 0 0 0.8743
-22.9518 -24.3469 1.2514 50.7914 0 0 0.8746
-22.8670 -24.3875 1.2504 57.0447 0 0 0.8747
-22.8070 -24.4545 1.2508 54.4785 0 0 0.8747
-22.7750 -24.5519 1.2527 43.5614 0 0 0.8745
-21.4443 -25.0671 1.2338 40.6954 0 0 0.8763
-21.3769 -25.1243 1.2338 40.6956 0 0 0.8763
-21.3095 -25.1816 1.2338 40.6955 0 0 0.8763
-21.2421 -25.2389 1.2338 40.6951 0 0 0.8763
-21.1747 -25.2962 1.2338 40.6944 0 0 0.8763
-21.1074 -25.3534 1.2339 40.6934 0 0 0.8763
-21.0400 -25.4107 1.2339 40.6921 0 0 0.8763
-20.9727 -25.4680 1.2339 40.6905 0 0 0.8763
-20.9053 -25.5254 1.2340 40.6886 0 0 0.8763
-20.8379 -25.5827 1.2341 40.6864 0 0 0.8763
-20.7705 -25.6400 1.2341 40.6839 0 0 0.8763
-20.7032 -25.6974 1.2342 40.6811 0 0 0.8763
-20.6358 -25.7548 1.2343 40.6780 0 0 0.8763
-20.5684 -25.8122 1.2344 40.6746 0 0 0.8762
-20.5010 -25.8696 1.2345 40.6709 0 0 0.8762
-20.4336 -25.9270 1.2347 40.6669 0 0 0.8762
-20.3662 -25.9844 1.2348 40.6625 0 0 0.8762
-20.2988 -26.0419 1.2349 40.6579 0 0 0.8762
-20.2314 -26.0994 1.2351 40.6530 0 0 0.8762
-20.1639 -26.1569 1.2352 40.6478 0 0 0.8762
-20.0965 -26.2144 1.2354 40.6422 0 0 0.8762
-20.0290 -26.2719 1.2356 40.6364 0 0 0.8761
-19.9615 -26.3295 1.2358 40.6302 0 0 0.8761
-19.8940 -26.3871 1.2360 40.6238 0 0 0.8761
-19.8265 -26.4447 1.2362 40.6171 0 0 0.8761
-19.7590 -26.5024 1.2364 40.6100 0 0 0.8761
-19.6914 -26.5600 1.2366 40.6027 0 0 0.8760
-19.6239 -26.6178 1.2369 40.5950 0 0 0.8760
-19.5563 -26.6755 1.2371 40.5871 0 0 0.8760
-19.4887 -26.7332 1.2373 40.5788 0 0 0.8760
-19.4211 -26.7910 1.2376 40.5703 0 0 0.8759
-19.3534 -26.8489 1.2379 40.5614 0 0 0.8759
-19.2857 -26.9067 1.2382 40.5523 0 0 0.8759
-19.2199 -26.9673 1.2386 38.9136 0 0 0.8759
-19.1634 -27.0411 1.2396 38.8813 0 0 0.8758
-19.1068 -27.1150 1.2406 38.8488 0 0 0.8757
-19.0502 -27.1891 1.2417 38.8160 0 0 0.8756
-18.9934 -27.2634 1.2427 38.7829 0 0 0.8755
-18.9366 -27.3377 1.2438 38.7495 0 0 0.8754
-18.8796 -27.4122 1.2449 38.7158 0 0 0.8753
-18.8227 -27.4869 1.2460 38.6818 0 0 0.8752
-18.7655 -27.5616 1.2471 38.6475 0 0 0.8751
-18.7083 -27.6365 1.2482 38.6130 0 0 0.8750
-18.6510 -27.7116 1.2493 38.5781 0 0 0.8748
-18.5936 -27.7868 1.2505 38.5430 0 0 0.8747
-18.5361 -27.8622 1.2516 38.5076 0 0 0.8746
-18.4784 -27.9377 1.2528 38.4718 0 0 0.8745
-18.4207 -28.0133 1.2540 38.4358 0 0 0.8744
-18.3629 -28.0891 1.2551 38.3996 0 0 0.8743
-15.4691 -23.8017 1.0616 32.4125 0 0 0.8926
-15.3454 -23.7504 1.0574 32.5390 0 0 0.8930
-15.2562 -23.7518 1.0558 56.3489 0 0 0.8932
-15.1852 -23.7813 1.0553 56.3759 0 0 0.8932
-15.1203 -23.8201 1.0552 46.8494 0 0 0.8932
-15.0849 -23.9057 1.0573 46.7610 0 0 0.8930
-15.0730 -24.0294 1.0609 9.5447 0 0 0.8927
-7.0912 -32.9844 1.2618 8.3777 0 0 0.8737
-6.9682 -32.8403 1.2556 55.2176 0 0 0.8743
-6.8755 -32.8367 1.2548 55.2549 0 0 0.8743
-6.7831 -32.8339 1.2540 55.5530 0 0 0.8744
-6.7068 -32.9096 1.2562 38.6630 0 0 0.8742
-6.4530 -32.1037 1.2247 39.7255 0 0 0.8772
-6.3493 -32.0318 1.2214 39.8360 0 0 0.8775
-6.2532 -31.9966 1.2194 55.0642 0 0 0.8777
-6.1716 -32.0352 1.2202 55.1695 0 0 0.8776
-6.0899 -32.0734 1.2210 55.1320 0 0 0.8775
-6.0080 -32.1118 1.2219 55.0940 0 0 0.8774
-3.2040 -25.8524 0.9743 37.1610 0 0 0.9010
-3.1404 -25.9082 0.9761 37.0932 0 0 0.9008
-3.0766 -25.9642 0.9779 37.0252 0 0 0.9006
-3.0126 -26.0204 0.9797 36.9568 0 0 0.9005
-2.9483 -26.0768 0.9815 36.8882 0 0 0.9003
-2.8838 -26.1334 0.9834 36.8193 0 0 0.9001
-2.8190 -26.1902 0.9852 36.7501 0 0 0.8999
-2.7540 -26.2473 0.9871 36.6807 0 0 0.8997
-2.6887 -26.3046 0.9890 36.6110 0 0 0.8996
-2.6232 -26.3621 0.9908 36.5410 0 0 0.8994
-2.5579 -26.4246 0.9929 30.3675 0 0 0.8992
-2.4944 -26.5094 0.9959 30.2781 0 0 0.8989
-2.4306 -26.5947 0.9988 30.1885 0 0 0.8986
-2.3663 -26.6806 1.0018 30.0986 0 0 0.8983
-2.3017 -26.7669 1.0048 30.0085 0 0 0.8980
11.7101 -35.7790 1.4080 19.4378 0 0 0.8601
11.7393 -35.5455 1.4001 19.5483 0 0 0.8608
11.7681 -35.3146 1.3922 19.6586 0 0 0.8616
11.7966 -35.0863 1.3844 19.7687 0 0 0.8623
11.8248 -34.8606 1.3768 19.8788 0 0 0.8630
11.8527 -34.6373 1.3692 19.9886 0 0 0.8637
11.8803 -34.4165 1.3617 20.0983 0 0 0.8644
11.9076 -34.1982 1.3544 20.2079 0 0 0.8651
11.9346 -33.9821 1.3471 20.3173 0 0 0.8657
11.9613 -33.7685 1.3399 20.4265 0 0 0.8664
11.9878 -33.5570 1.3327 20.5356 0 0 0.8671
12.0139 -33.3479 1.3257 20.6446 0 0 0.8677
12.0399 -33.1410 1.3188 20.7533 0 0 0.8684
12.0655 -32.9362 1.3119 20.8620 0 0 0.8690
12.0909 -32.7335 1.3051 20.9704 0 0 0.8696
12.1160 -32.5330 1.2984 21.0787 0 0 0.8703
12.1409 -32.3345 1.2918 21.1869 0 0 0.8709
12.1655 -32.1380 1.2852 21.2948 0 0 0.8715
12.1899 -31.9436 1.2788 21.4026 0 0 0.8721
17.1193 -32.6838 1.3799 12.6445 0 0 0.8627
17.1893 -32.6045 1.3785 57.1204 0 0 0.8628
17.2772 -32.5594 1.3786 57.1184 0 0 0.8628
17.3652 -32.5143 1.3786 57.1161 0 0 0.8628
17.4605 -32.4831 1.3793 46.8479 0 0 0.8628
17.5807 -32.4975 1.3819 46.7595 0 0 0.8625
18.3541 -33.2846 1.4216 23.7735 0 0 0.8589
18.3898 -33.1390 1.4175 56.1661 0 0 0.8592
18.4886 -33.1075 1.4182 56.1357 0 0 0.8592
18.5874 -33.0760 1.4190 56.1049 0 0 0.8591
18.7290 -33.1196 1.4231 17.9103 0 0 0.8587
16.4587 -24.3135 1.0981 26.4805 0 0 0.8891
16.4699 -24.1901 1.0945 43.9166 0 0 0.8895
16.5146 -24.1166 1.0932 54.6950 0 0 0.8896
16.5761 -24.0676 1.0930 56.9768 0 0 0.8896
16.6528 -24.0407 1.0938 50.5212 0 0 0.8895
16.7520 -24.0461 1.0961 36.2327 0 0 0.8893
21.6142 -30.8486 1.4088 24.8790 0 0 0.8600
21.6659 -30.7468 1.4068 40.0242 0 0 0.8602
21.7374 -30.6733 1.4061 40.0442 0 0 0.8603
21.8088 -30.5999 1.4054 40.0639 0 0 0.8604
21.8802 -30.5265 1.4047 40.0833 0 0 0.8604
21.9514 -30.4532 1.4040 40.1024 0 0 0.8605
22.0227 -30.3800 1.4034 40.1212 0 0 0.8605
22.0938 -30.3069 1.4027 40.1398 0 0 0.8606
22.1649 -30.2338 1.4021 40.1580 0 0 0.8607
22.2360 -30.1609 1.4015 40.1759 0 0 0.8607
22.3070 -30.0880 1.4009 40.1935 0 0 0.8608
22.3779 -30.0151 1.4003 40.2108 0 0 0.8608
22.4487 -29.9424 1.3997 40.2278 0 0 0.8609
22.5196 -29.8697 1.3991 40.2446 0 0 0.8609
22.5904 -29.7970 1.3985 40.2610 0 0 0.8610
22.6611 -29.7245 1.3980 40.2771 0 0 0.8610
22.7317 -29.6520 1.3974 40.2929 0 0 0.8611
22.8023 -29.5795 1.3969 40.3084 0 0 0.8611
22.8729 -29.5072 1.3963 40.3237 0 0 0.8612
22.9434 -29.4349 1.3958 40.3386 0 0 0.8612
23.0139 -29.3626 1.3953 40.3532 0 0 0.8613
23.0844 -29.2904 1.3948 40.3675 0 0 0.8613
23.1547 -29.2183 1.3943 40.3815 0 0 0.8614
23.2251 -29.1462 1.3939 40.3953 0 0 0.8614
23.2954 -29.0742 1.3934 40.4087 0 0 0.8615
23.3657 -29.0022 1.3929 40.4218 0 0 0.8615
23.4359 -28.9303 1.3925 40.4346 0 0 0.8615
23.5061 -28.8585 1.3921 40.4471 0 0 0.8616
23.5762 -28.7867 1.3917 40.4593 0 0 0.8616
23.6463 -28.7149 1.3912 40.4713 0 0 0.8617
23.7164 -28.6432 1.3908 40.4829 0 0 0.8617
23.7865 -28.5715 1.3905 40.4942 0 0 0.8617
23.8565 -28.4999 1.3901 40.5052 0 0 0.8618
23.9265 -28.4284 1.3897 40.5159 0 0 0.8618
24.0020 -28.3634 1.3897 40.3912 0 0 0.8618
24.0856 -28.3079 1.3901 40.3784 0 0 0.8618
24.1692 -28.2525 1.3906 40.3653 0 0 0.8617
24.2529 -28.1969 1.3910 40.3519 0 0 0.8617
24.3367 -28.1414 1.3915 40.3382 0 0 0.8616
24.4205 -28.0858 1.3920 40.3242 0 0 0.8616
24.5044 -28.0302 1.3925 40.3099 0 0 0.8615
24.5884 -27.9745 1.3930 40.2953 0 0 0.8615
24.6724 -27.9188 1.3935 40.2804 0 0 0.8615
24.7565 -27.8631 1.3940 40.2652 0 0 0.8614
24.8406 -27.8074 1.3946 40.2497 0 0 0.8614
24.9249 -27.7516 1.3951 40.2339 0 0 0.8613
25.0092 -27.6957 1.3957 40.2178 0 0 0.8613
25.0936 -27.6399 1.3962 40.2014 0 0 0.8612
25.1780 -27.5840 1.3968 40.1847 0 0 0.8611
25.2626 -27.5280 1.3974 40.1676 0 0 0.8611
25.3472 -27.4720 1.3980 40.1503 0 0 0.8610
29.6789 -1.3534 1.1112 57.1963 130 4 0.8879
29.6789 -1.2737 1.1110 57.2031 130 4 0.8879
29.6789 -1.1940 1.1109 57.2095 130 4 0.8879
29.6789 -1.1143 1.1108 57.2154 130 4 0.8879
29.6789 -1.0346 1.1107 57.2210 130 4 0.8879
29.6789 -0.9550 1.1106 57.2261 130 4 0.8879
29.6789 -0.8754 1.1105 57.2309 130 4 0.8879
29.6789 -0.7957 1.1104 57.2352 130 4 0.8879
29.6789 -0.7161 1.1103 57.2391 130 4 0.8880
29.6789 -0.6365 1.1103 57.2426 130 4 0.8880
29.6789 -0.5570 1.1102 57.2457 130 4 0.8880
29.6789 -0.4774 1.1102 57.2483 130 4 0.8880
29.6789 -0.3978 1.1101 57.2506 130 4 0.8880
29.6789 -0.3182 1.1101 57.2525 130 4 0.8880
29.6789 -0.2387 1.1101 57.2539 130 4 0.8880
29.6789 -0.1591 1.1100 57.2549 130 4 0.8880
29.6789 -0.0796 1.1100 57.2555 130 4 0.8880
29.6789 -0.0000 1.1100 57.2557 130 4 0.8880
29.6789 0.0796 1.1100 57.2555 130 4 0.8880
29.6789 0.1591 1.1100 57.2549 130 4 0.8880
29.6789 0.2387 1.1101 57.2539 130 4 0.8880
29.6789 0.3182 1.1101 57.2525 130 4 0.8880
29.6789 0.3978 1.1101 57.2506 130 4 0.8880
29.6789 0.4774 1.1102 57.2483 130 4 0.8880
29.6789 0.5570 1.1102 57.2457 130 4 0.8880
29.6789 0.6365 1.1103 57.2426 130 4 0.8880
29.6789 0.7161 1.1103 57.2391 130 4 0.8880
29.6789 0.7957 1.1104 57.2352 130 4 0.8879
29.5194 0.8707 1.1045 57.2309 130 4 0.8885
29.5194 0.9499 1.1046 57.2261 130 4 0.8885
29.5194 1.0291 1.1047 57.2210 130 4 0.8885
29.5194 1.1083 1.1048 57.2154 130 4 0.8885
29.5194 1.1876 1.1050 57.2095 130 4 0.8885
29.5194 1.2668 1.1051 57.2031 130 4 0.8885
29.6789 1.3534 1.1112 57.1963 130 4 0.8879
28.2136 1.5140 1.0567 51.7939 132 4 0.8931
28.2453 1.5916 1.0581 51.7281 132 4 0.8929
28.2770 1.6695 1.0594 51.6620 132 4 0.8928
28.3089 1.7475 1.0608 51.5955 132 4 0.8927
28.1756 1.8151 1.0560 3.7827 132 4 0.8931
26.4997 1.7785 0.9933 3.7352 132 4 0.8991
25.4524 1.7768 0.9543 3.8882 132 4 0.9029
24.4845 1.7752 0.9182 4.0411 132 4 0.9064
23.5872 1.7737 0.8847 4.1940 132 4 0.9097
22.7530 1.7723 0.8536 4.3469 132 4 0.9127
21.9754 1.7710 0.8246 4.4997 132 4 0.9155
21.2489 1.7698 0.7975 4.6526 132 4 0.9182
20.6789 1.7781 0.7763 57.0452 132 4 0.9203
20.6789 1.8340 0.7765 57.0319 132 4 0.9203
20.6789 1.8899 0.7766 57.0181 132 4 0.9202
20.6789 1.9458 0.7768 57.0039 132 4 0.9202
20.6789 2.0017 0.7770 56.9894 132 4 0.9202
20.6789 2.0577 0.7772 56.9744 132 4 0.9202
20.6789 2.1137 0.7774 56.9590 132 4 0.9202
20.6789 2.1697 0.7777 56.9432 132 4 0.9201
20.6789 2.2258 0.7779 56.9269 132 4 0.9201
20.6789 2.2818 0.7781 56.9103 132 4 0.9201
20.6789 2.3380 0.7783 56.8933 132 4 0.9201
20.6789 2.3941 0.7786 56.8758 132 4 0.9201
20.6789 2.4503 0.7788 56.8580 132 4 0.9200
20.6789 2.5065 0.7791 56.8397 132 4 0.9200
20.6789 2.5628 0.7793 56.8210 132 4 0.9200
20.6789 2.6191 0.7796 56.8020 132 4 0.9200
20.6789 2.6755 0.7799 56.7825 132 4 0.9199
20.6789 2.7318 0.7801 56.7626 132 4 0.9199
20.6789 2.7883 0.7804 56.7423 132 4 0.9199
20.6789 2.8447 0.7807 56.7215 132 4 0.9198
20.6789 2.9012 0.7810 56.7004 132 4 0.9198
20.6789 2.9578 0.7813 56.6789 132 4 0.9198
20.6789 3.0143 0.7816 56.6570 132 4 0.9198
20.6789 3.0710 0.7819 56.6346 132 4 0.9197
20.6789 3.1276 0.7822 56.6119 132 4 0.9197
20.6789 3.1844 0.7825 56.5887 132 4 0.9197
20.6789 3.2411 0.7829 56.5652 132 4 0.9196
20.6789 3.2980 0.7832 56.5412 132 4 0.9196
20.6789 3.3548 0.7835 56.5168 132 4 0.9196
20.6789 3.4117 0.7839 56.4920 132 4 0.9195
20.6789 3.4687 0.7842 56.4669 132 4 0.9195
20.6789 3.5257 0.7846 56.4413 132 4 0.9195
20.6789 3.5828 0.7849 56.4153 132 4 0.9194
20.6789 3.6399 0.7853 56.3889 132 4 0.9194
20.6789 3.6971 0.7857 56.3620 132 4 0.9194
20.6789 3.7543 0.7861 56.3348 132 4 0.9193
20.6789 3.8116 0.7864 56.3072 132 4 0.9193
20.6789 3.8689 0.7868 56.2792 132 4 0.9192
20.6789 3.9263 0.7872 56.2508 132 4 0.9192
20.5205 3.9533 0.7816 10.8312 132 4 0.9198
20.5194 4.0101 0.7820 56.1927 132 4 0.9197
20.5194 4.0673 0.7824 56.1631 132 4 0.9197
20.5194 4.1245 0.7828 56.1330 132 4 0.9196
20.5194 4.1817 0.7832 56.1026 132 4 0.9196
20.5194 4.2390 0.7837 56.0717 132 4 0.9196
20.5194 4.2964 0.7841 56.0405 132 4 0.9195
20.5194 4.3539 0.7845 56.0088 132 4 0.9195
20.5194 4.4114 0.7850 55.9768 132 4 0.9194
20.6789 4.5037 0.7915 55.9443 132 4 0.9188
26.4618 11.4207 1.0779 44.0724 0 0 0.8910
26.4174 11.4857 1.0774 44.0952 0 0 0.8911
26.3731 11.5505 1.0768 44.1177 0 0 0.8911
26.3288 11.6154 1.0763 44.1399 0 0 0.8912
26.2845 11.6801 1.0758 44.1618 0 0 0.8912
26.2404 11.7448 1.0752 44.1833 0 0 0.8913
26.1962 11.8094 1.0747 44.2045 0 0 0.8913
26.1521 11.8740 1.0742 44.2254 0 0 0.8914
26.1080 11.9385 1.0737 44.2459 0 0 0.8914
26.0640 12.0030 1.0732 44.2662 0 0 0.8915
26.0201 12.0673 1.0727 44.2861 0 0 0.8915
25.9761 12.1317 1.0723 44.3056 0 0 0.8916
25.9323 12.1960 1.0718 44.3249 0 0 0.8916
25.8884 12.2602 1.0713 44.3438 0 0 0.8917
25.8446 12.3244 1.0709 44.3624 0 0 0.8917
25.8009 12.3885 1.0705 44.3806 0 0 0.8918
25.7572 12.4526 1.0700 44.3986 0 0 0.8918
25.7135 12.5166 1.0696 44.4162 0 0 0.8918
25.6699 12.5806 1.0692 44.4335 0 0 0.8919
25.6263 12.6446 1.0688 44.4504 0 0 0.8919
25.5827 12.7085 1.0684 44.4670 0 0 0.8920
25.5392 12.7723 1.0680 44.4833 0 0 0.8920
25.4957 12.8361 1.0676 44.4993 0 0 0.8920
25.4523 12.8999 1.0672 44.5149 0 0 0.8921
25.4089 12.9636 1.0669 44.5302 0 0 0.8921
25.3655 13.0273 1.0665 44.5452 0 0 0.8921
25.3222 13.0909 1.0661 44.5599 0 0 0.8922
25.2789 13.1545 1.0658 44.5742 0 0 0.8922
25.2356 13.2181 1.0655 44.5882 0 0 0.8922
25.1924 13.2816 1.0651 44.6018 0 0 0.8923
25.1492 13.3451 1.0648 44.6152 0 0 0.8923
25.1060 13.4086 1.0645 44.6282 0 0 0.8923
25.0628 13.4720 1.0642 44.6408 0 0 0.8924
25.0197 13.5354 1.0639 44.6532 0 0 0.8924
24.9766 13.5988 1.0636 44.6652 0 0 0.8924
24.9336 13.6621 1.0634 44.6769 0 0 0.8924
24.8905 13.7254 1.0631 44.6882 0 0 0.8925
24.8475 13.7887 1.0628 44.6992 0 0 0.8925
24.8045 13.8519 1.0626 44.7099 0 0 0.8925
24.7616 13.9151 1.0623 44.7203 0 0 0.8925
24.7186 13.9783 1.0621 44.7303 0 0 0.8926
29.6344 16.8632 1.2752 48.3570 0 0 0.8724
29.6384 16.9708 1.2773 48.2766 0 0 0.8722
29.6424 17.0787 1.2795 48.1959 0 0 0.8720
30.1382 17.4722 1.3029 54.7847 0 0 0.8698
29.0482 16.9444 1.2578 51.0343 0 0 0.8741
28.9632 16.9991 1.2560 51.1038 0 0 0.8742
28.8785 17.0536 1.2543 51.1730 0 0 0.8744
28.8486 17.1404 1.2550 35.9953 0 0 0.8743
28.8976 17.2745 1.2592 35.8770 0 0 0.8739
28.9468 17.4095 1.2633 35.7584 0 0 0.8735
29.0564 17.5816 1.2702 29.0079 0 0 0.8729
28.8776 17.5793 1.2645 29.1401 0 0 0.8734
28.8042 17.6406 1.2633 57.2797 0 0 0.8735
28.7579 17.7185 1.2633 57.2774 0 0 0.8735
28.7117 17.7963 1.2634 57.2748 0 0 0.8735
28.7054 17.8991 1.2652 27.4545 0 0 0.8734
28.7987 18.0647 1.2715 27.3197 0 0 0.8728
16.4394 11.9170 0.7594 27.9637 0 0 0.9219
16.3538 11.9219 0.7569 45.0703 0 0 0.9222
16.2942 11.9455 0.7556 51.1421 0 0 0.9223
16.2480 11.9788 0.7550 55.2331 0 0 0.9224
16.2134 12.0205 0.7549 56.7667 0 0 0.9224
16.1892 12.0699 0.7552 54.1762 0 0 0.9224
16.1762 12.1278 0.7562 49.4989 0 0 0.9223
16.1795 12.1982 0.7578 34.4021 0 0 0.9221
16.2368 12.3097 0.7619 14.3190 0 0 0.9217
22.5033 19.7794 1.1205 1.5884 0 0 0.8870
18.9033 16.7957 0.9457 41.6858 0 0 0.9037
18.8111 16.8042 0.9434 41.7902 0 0 0.9040
18.7193 16.8127 0.9410 41.8944 0 0 0.9042
18.6280 16.8211 0.9387 41.9982 0 0 0.9044
18.5372 16.8295 0.9364 42.1017 0 0 0.9046
18.4671 16.8564 0.9351 44.3294 0 0 0.9048
18.4599 16.9408 0.9371 44.2379 0 0 0.9046
18.4528 17.0256 0.9390 44.1460 0 0 0.9044
18.4456 17.1107 0.9410 44.0538 0 0 0.9042
18.4384 17.1962 0.9430 43.9613 0 0 0.9040
17.6463 17.2720 0.9235 49.1803 0 0 0.9059
17.5729 17.2926 0.9221 49.2560 0 0 0.9060
17.4998 17.3132 0.9207 49.3313 0 0 0.9062
17.4268 17.3337 0.9193 49.4063 0 0 0.9063
17.3758 17.3759 0.9191 39.4863 0 0 0.9063
17.3589 17.4523 0.9206 49.4007 0 0 0.9062
17.3394 17.5264 0.9221 49.3229 0 0 0.9060
17.3198 17.6007 0.9236 49.2447 0 0 0.9059
11.5479 15.8408 0.7332 20.0783 0 0 0.9245
11.5687 15.9590 0.7372 19.9685 0 0 0.9241
11.5896 16.0784 0.7413 19.8586 0 0 0.9237
11.6108 16.1992 0.7454 19.7486 0 0 0.9233
11.6322 16.3213 0.7496 19.6384 0 0 0.9229
11.6539 16.4448 0.7538 19.5281 0 0 0.9225
11.6759 16.5698 0.7581 19.4176 0 0 0.9221
11.6981 16.6961 0.7625 19.3070 0 0 0.9216
11.7205 16.8240 0.7669 19.1961 0 0 0.9212
11.7433 16.9533 0.7713 19.0852 0 0 0.9208
11.7663 17.0841 0.7758 18.9741 0 0 0.9203
11.7896 17.2165 0.7804 18.8629 0 0 0.9199
11.8131 17.3506 0.7851 18.7515 0 0 0.9194
11.8370 17.4861 0.7897 18.6400 0 0 0.9190
11.8611 17.6234 0.7945 18.5284 0 0 0.9185
11.8855 17.7623 0.7993 18.4166 0 0 0.9180
11.9103 17.9029 0.8042 18.3046 0 0 0.9175
-5.9094 18.0555 0.7105 33.6642 0 0 0.9268
-5.9360 17.9735 0.7080 33.7878 0 0 0.9270
-5.9623 17.8922 0.7054 33.9113 0 0 0.9273
-5.9885 17.8114 0.7028 34.0345 0 0 0.9275
-5.9956 17.6754 0.6981 55.0300 0 0 0.9280
-6.0384 17.6460 0.6976 55.0714 0 0 0.9281
-6.0835 17.6235 0.6973 50.2445 0 0 0.9281
-6.1391 17.6311 0.6983 50.1763 0 0 0.9280
-6.1948 17.6387 0.6992 50.1076 0 0 0.9279
-6.2506 17.6463 0.7002 50.0386 0 0 0.9278
-6.3067 17.6540 0.7011 49.9693 0 0 0.9277
-6.3650 17.6676 0.7024 39.2477 0 0 0.9276
-6.4301 17.6994 0.7043 39.1394 0 0 0.9274
-6.3751 17.1178 0.6832 42.8327 0 0 0.9295
-6.4059 17.0607 0.6816 42.9330 0 0 0.9297
-6.4367 17.0039 0.6800 43.0330 0 0 0.9298
-6.4652 16.9420 0.6782 37.9113 0 0 0.9300
-6.4912 16.8742 0.6762 38.0244 0 0 0.9302
-6.5312 16.8432 0.6757 46.7366 0 0 0.9302
-6.5888 16.8577 0.6769 46.6477 0 0 0.9301
-6.6467 16.8722 0.6783 54.0136 0 0 0.9300
-6.6982 16.8703 0.6789 53.9623 0 0 0.9299
-6.7499 16.8685 0.6796 53.9105 0 0 0.9299
-6.8017 16.8666 0.6802 53.8584 0 0 0.9298
-6.8536 16.8648 0.6809 53.8058 0 0 0.9297
-18.7157 11.3246 0.8182 33.9154 0 0 0.9162
-18.6780 11.2335 0.8151 34.0389 0 0 0.9165
-18.6530 11.1505 0.8128 56.6458 0 0 0.9167
-18.6755 11.0961 0.8125 56.6679 0 0 0.9167
-18.6980 11.0418 0.8122 56.6896 0 0 0.9168
-18.7205 10.9875 0.8119 56.7110 0 0 0.9168
-18.7866 10.9586 0.8135 45.5797 0 0 0.9166
-18.8544 10.9305 0.8150 45.4867 0 0 0.9165
-19.0500 10.9758 0.8224 7.4202 0 0 0.9158
-23.0712 -24.3425 0.5967 27.5328 0 0 0.8744
-22.9482 -24.3431 0.5953 50.8268 0 0 0.8747
-22.8648 -24.3852 0.5948 57.0811 0 0 0.8748
-22.8060 -24.4536 0.5950 54.5102 0 0 0.8748
-22.7757 -24.5527 0.5960 43.5836 0 0 0.8746
-19.9264 -25.5641 0.5767 41.4403 0 0 0.8784
-19.8601 -25.6204 0.5768 41.4353 0 0 0.8784
-19.7939 -25.6768 0.5769 41.4301 0 0 0.8784
-19.7276 -25.7332 0.5769 41.4245 0 0 0.8783
-19.6613 -25.7897 0.5770 41.4187 0 0 0.8783
-19.5950 -25.8461 0.5771 41.4126 0 0 0.8783
-19.5287 -25.9025 0.5772 41.4061 0 0 0.8783
-19.4624 -25.9590 0.5773 41.3994 0 0 0.8783
-19.3961 -26.0155 0.5774 41.3923 0 0 0.8783
-19.3296 -26.0721 0.5775 41.3850 0 0 0.8782
-19.2633 -26.1286 0.5776 41.3773 0 0 0.8782
-19.1969 -26.1852 0.5777 41.3694 0 0 0.8782
-19.1304 -26.2418 0.5778 41.3611 0 0 0.8782
-19.0639 -26.2984 0.5779 41.3526 0 0 0.8781
-18.9975 -26.3551 0.5781 41.3437 0 0 0.8781
-18.9309 -26.4118 0.5782 41.3345 0 0 0.8781
-18.8644 -26.4685 0.5783 41.3251 0 0 0.8781
-18.7978 -26.5252 0.5785 41.3153 0 0 0.8780
-18.7398 -26.5942 0.5789 39.6310 0 0 0.8780
-18.6840 -26.6665 0.5794 39.5982 0 0 0.8779
-18.6280 -26.7388 0.5798 39.5651 0 0 0.8778
-18.5720 -26.8113 0.5803 39.5316 0 0 0.8777
-18.5158 -26.8839 0.5808 39.4979 0 0 0.8776
-18.4596 -26.9567 0.5813 39.4639 0 0 0.8775
-18.4032 -27.0295 0.5818 39.4296 0 0 0.8774
-18.3468 -27.1025 0.5823 39.3951 0 0 0.8773
-15.4691 -23.8017 0.5050 32.4301 0 0 0.8926
-15.3454 -23.7504 0.5033 32.5566 0 0 0.8930
-15.2562 -23.7518 0.5023 56.3794 0 0 0.8932
-15.1852 -23.7812 0.5020 56.4064 0 0 0.8933
-15.1203 -23.8201 0.5020 46.8748 0 0 0.8933
-15.0849 -23.9057 0.5031 46.7863 0 0 0.8931
-15.0729 -24.0292 0.5046 9.5499 0 0 0.8927
-6.9813 -32.9022 0.5984 8.4080 0 0 0.8741
-6.8655 -32.7889 0.5961 55.3653 0 0 0.8746
-6.7731 -32.7853 0.5957 55.4022 0 0 0.8746
-6.5599 -32.1889 0.5845 39.7920 0 0 0.8768
-6.4556 -32.1167 0.5829 39.7309 0 0 0.8772
-6.3543 -32.0572 0.5815 54.9609 0 0 0.8774
-6.2727 -32.0965 0.5819 54.9226 0 0 0.8774
-6.1908 -32.1350 0.5823 55.0279 0 0 0.8773
-6.1089 -32.1734 0.5827 54.9904 0 0 0.8772
11.3532 -34.3768 0.6441 20.2238 0 0 0.8652
11.3832 -34.1597 0.6406 20.3342 0 0 0.8658
11.4129 -33.9451 0.6372 20.4444 0 0 0.8665
11.4422 -33.7328 0.6338 20.5545 0 0 0.8672
11.4712 -33.5227 0.6304 20.6644 0 0 0.8678
11.5000 -33.3149 0.6271 20.7742 0 0 0.8685
11.5284 -33.1092 0.6238 20.8838 0 0 0.8691
11.5566 -32.9057 0.6205 20.9933 0 0 0.8698
11.5844 -32.7043 0.6173 21.1026 0 0 0.8704
11.6120 -32.5051 0.6141 21.2117 0 0 0.8710
17.2151 -32.8667 0.6601 12.8673 0 0 0.8621
17.2339 -32.6891 0.6575 56.9018 0 0 0.8626
17.3221 -32.6439 0.6575 56.8998 0 0 0.8626
17.4102 -32.5988 0.6576 56.8974 0 0 0.8626
17.5125 -32.5798 0.6581 43.3024 0 0 0.8625
17.6364 -32.6004 0.6595 46.0041 0 0 0.8622
18.2513 -33.3091 0.6758 22.3820 0 0 0.8590
18.2460 -33.0887 0.6723 37.3323 0 0 0.8597
18.3440 -33.0565 0.6727 54.9884 0 0 0.8596
18.4433 -33.0264 0.6730 54.9564 0 0 0.8596
18.5427 -32.9963 0.6734 54.9241 0 0 0.8595
18.7646 -33.1826 0.6783 17.6705 0 0 0.8586
16.4579 -24.3122 0.5224 26.4963 0 0 0.8892
16.4681 -24.1874 0.5206 43.9452 0 0 0.8895
16.5124 -24.1132 0.5200 54.7322 0 0 0.8897
16.5735 -24.0638 0.5199 57.0167 0 0 0.8897
16.6497 -24.0363 0.5202 50.5578 0 0 0.8896
16.7483 -24.0408 0.5213 36.2603 0 0 0.8894
22.3805 -29.0323 0.6522 41.0905 0 0 0.8636
22.4499 -28.9614 0.6520 41.1057 0 0 0.8636
22.5193 -28.8907 0.6518 41.1207 0 0 0.8637
22.5886 -28.8200 0.6515 41.1353 0 0 0.8637
22.6579 -28.7493 0.6513 41.1496 0 0 0.8638
22.7271 -28.6787 0.6511 41.1636 0 0 0.8638
22.7963 -28.6081 0.6509 41.1774 0 0 0.8639
22.8654 -28.5376 0.6506 41.1908 0 0 0.8639
22.9345 -28.4671 0.6504 41.2039 0 0 0.8639
23.0036 -28.3967 0.6502 41.2167 0 0 0.8640
23.0726 -28.3263 0.6500 41.2293 0 0 0.8640
23.1416 -28.2560 0.6498 41.2415 0 0 0.8641
23.2106 -28.1857 0.6497 41.2534 0 0 0.8641
23.2795 -28.1155 0.6495 41.2650 0 0 0.8641
23.3484 -28.0453 0.6493 41.2763 0 0 0.8642
23.4172 -27.9751 0.6491 41.2873 0 0 0.8642
23.4860 -27.9050 0.6490 41.2981 0 0 0.8642
23.5583 -27.8391 0.6489 41.1742 0 0 0.8642
23.6402 -27.7845 0.6491 41.1614 0 0 0.8642
23.7221 -27.7298 0.6493 41.1483 0 0 0.8642
23.8041 -27.6752 0.6495 41.1349 0 0 0.8641
23.8862 -27.6205 0.6497 41.1211 0 0 0.8641
23.9683 -27.5657 0.6499 41.1071 0 0 0.8640
24.0505 -27.5110 0.6502 41.0928 0 0 0.8640
24.1327 -27.4562 0.6504 41.0782 0 0 0.8639
24.2150 -27.4013 0.6506 41.0633 0 0 0.8639
29.6789 -1.3534 0.5286 57.2272 130 4 0.8879
29.6789 -1.2737 0.5286 57.2340 130 4 0.8879
29.6789 -1.1940 0.5285 57.2404 130 4 0.8880
29.6789 -1.1143 0.5284 57.2464 130 4 0.8880
29.6789 -1.0346 0.5284 57.2519 130 4 0.8880
29.6789 -0.9550 0.5283 57.2571 130 4 0.8880
29.6789 -0.8754 0.5283 57.2618 130 4 0.8880
29.6789 -0.7957 0.5283 57.2661 130 4 0.8880
29.6789 -0.7161 0.5282 57.2700 130 4 0.8880
29.6789 -0.6365 0.5282 57.2735 130 4 0.8880
29.6789 -0.5570 0.5282 57.2766 130 4 0.8880
29.6789 -0.4774 0.5281 57.2793 130 4 0.8880
29.6789 -0.3978 0.5281 57.2816 130 4 0.8880
29.6789 -0.3182 0.5281 57.2834 130 4 0.8880
29.6789 -0.2387 0.5281 57.2849 130 4 0.8880
29.6789 -0.1591 0.5281 57.2859 130 4 0.8880
29.6789 -0.0796 0.5281 57.2865 130 4 0.8880
29.6789 0.0000 0.5281 57.2867 130 4 0.8880
29.6789 0.0796 0.5281 57.2865 130 4 0.8880
29.6789 0.1591 0.5281 57.2859 130 4 0.8880
29.6789 0.2387 0.5281 57.2849 130 4 0.8880
29.6789 0.3182 0.5281 57.2834 130 4 0.8880
29.6789 0.3978 0.5281 57.2816 130 4 0.8880
29.6789 0.4774 0.5281 57.2793 130 4 0.8880
29.6789 0.5570 0.5282 57.2766 130 4 0.8880
29.6789 0.6365 0.5282 57.2735 130 4 0.8880
29.6789 0.7161 0.5282 57.2700 130 4 0.8880
29.6789 0.7957 0.5283 57.2661 130 4 0.8880
29.5194 0.8707 0.5255 57.2618 130 4 0.8886
29.5194 0.9499 0.5255 57.2571 130 4 0.8886
29.5194 1.0291 0.5256 57.2519 130 4 0.8885
29.5194 1.1083 0.5256 57.2464 130 4 0.8885
29.5194 1.1876 0.5257 57.2404 130 4 0.8885
29.5194 1.2668 0.5257 57.2340 130 4 0.8885
29.6789 1.3534 0.5286 57.2272 130 4 0.8879
28.2447 1.5157 0.5033 51.7648 132 4 0.8930
28.2764 1.5934 0.5039 51.6990 132 4 0.8929
28.3083 1.6713 0.5046 51.6328 132 4 0.8928
28.3402 1.7495 0.5052 51.5663 132 4 0.8926
27.8913 1.7968 0.4973 6.1634 132 4 0.8942
26.1508 1.7551 0.4663 3.7871 132 4 0.9005
25.1303 1.7543 0.4482 3.9401 132 4 0.9041
24.1862 1.7535 0.4315 4.0932 132 4 0.9075
23.3102 1.7528 0.4159 4.2461 132 4 0.9107
22.4951 1.7522 0.4015 4.3991 132 4 0.9137
21.7347 1.7516 0.3880 4.5520 132 4 0.9165
21.0238 1.7510 0.3754 4.7049 132 4 0.9191
20.6789 1.7781 0.3693 57.0761 132 4 0.9203
20.6789 1.8340 0.3694 57.0627 132 4 0.9203
20.6789 1.8899 0.3695 57.0490 132 4 0.9203
20.6789 1.9458 0.3696 57.0348 132 4 0.9203
20.6789 2.0017 0.3697 57.0202 132 4 0.9202
20.6789 2.0577 0.3698 57.0052 132 4 0.9202
20.6789 2.1137 0.3699 56.9898 132 4 0.9202
20.6789 2.1697 0.3700 56.9740 132 4 0.9202
20.6789 2.2258 0.3701 56.9577 132 4 0.9202
20.6789 2.2819 0.3702 56.9411 132 4 0.9201
20.6789 2.3380 0.3703 56.9240 132 4 0.9201
20.6789 2.3941 0.3704 56.9066 132 4 0.9201
20.6789 2.4503 0.3705 56.8887 132 4 0.9201
20.6789 2.5065 0.3706 56.8704 132 4 0.9200
20.6789 2.5628 0.3708 56.8518 132 4 0.9200
20.6789 2.6191 0.3709 56.8327 132 4 0.9200
20.6789 2.6755 0.3710 56.8132 132 4 0.9200
20.6789 2.7318 0.3711 56.7933 132 4 0.9199
20.6789 2.7883 0.3713 56.7729 132 4 0.9199
20.6789 2.8447 0.3714 56.7522 132 4 0.9199
20.6789 2.9012 0.3715 56.7311 132 4 0.9199
20.6789 2.9578 0.3717 56.7096 132 4 0.9198
20.6789 3.0143 0.3718 56.6876 132 4 0.9198
20.6789 3.0710 0.3720 56.6653 132 4 0.9198
20.6789 3.1276 0.3721 56.6425 132 4 0.9197
20.6789 3.1844 0.3723 56.6193 132 4 0.9197
20.6789 3.2411 0.3724 56.5957 132 4 0.9197
20.6789 3.2980 0.3726 56.5718 132 4 0.9196
20.6789 3.3548 0.3727 56.5474 132 4 0.9196
20.6789 3.4117 0.3729 56.5226 132 4 0.9196
20.6789 3.4687 0.3731 56.4974 132 4 0.9195
20.6789 3.5257 0.3732 56.4718 132 4 0.9195
20.6789 3.5828 0.3734 56.4458 132 4 0.9195
20.6789 3.6399 0.3736 56.4194 132 4 0.9194
20.6789 3.6971 0.3738 56.3925 132 4 0.9194
20.6789 3.7543 0.3740 56.3653 132 4 0.9194
20.6789 3.8116 0.3741 56.3377 132 4 0.9193
20.6789 3.8689 0.3743 56.3096 132 4 0.9193
20.6789 3.9263 0.3745 56.2812 132 4 0.9192
20.5205 3.9533 0.3718 10.8370 132 4 0.9198
20.5194 4.0101 0.3720 56.2231 132 4 0.9198
20.5194 4.0673 0.3722 56.1934 132 4 0.9197
20.5194 4.1245 0.3724 56.1634 132 4 0.9197
20.5194 4.1817 0.3726 56.1329 132 4 0.9196
20.5194 4.2390 0.3728 56.1021 132 4 0.9196
20.5194 4.2964 0.3730 56.0708 132 4 0.9196
20.5194 4.3539 0.3732 56.0391 132 4 0.9195
20.5194 4.4114 0.3734 56.0070 132 4 0.9195
20.6789 4.5037 0.3766 55.9746 132 4 0.9188
25.5061 12.0792 0.5021 45.0328 0 0 0.8932
25.4631 12.1425 0.5019 45.0514 0 0 0.8933
25.4202 12.2057 0.5017 45.0696 0 0 0.8933
25.3773 12.2690 0.5015 45.0876 0 0 0.8934
25.3344 12.3321 0.5013 45.1052 0 0 0.8934
25.2916 12.3952 0.5011 45.1225 0 0 0.8934
25.2488 12.4583 0.5009 45.1394 0 0 0.8935
25.2060 12.5213 0.5008 45.1561 0 0 0.8935
25.1633 12.5843 0.5006 45.1724 0 0 0.8935
25.1205 12.6472 0.5004 45.1883 0 0 0.8936
25.0779 12.7101 0.5002 45.2040 0 0 0.8936
25.0352 12.7730 0.5001 45.2193 0 0 0.8937
24.9926 12.8358 0.4999 45.2343 0 0 0.8937
24.9500 12.8986 0.4997 45.2489 0 0 0.8937
24.9075 12.9613 0.4996 45.2633 0 0 0.8937
24.8650 13.0240 0.4994 45.2773 0 0 0.8938
24.8225 13.0866 0.4993 45.2909 0 0 0.8938
24.7800 13.1492 0.4991 45.3043 0 0 0.8938
24.7376 13.2118 0.4990 45.3173 0 0 0.8939
24.6952 13.2744 0.4988 45.3300 0 0 0.8939
24.6528 13.3369 0.4987 45.3423 0 0 0.8939
30.1322 16.8271 0.6141 18.5836 0 0 0.8710
29.8559 16.7780 0.6094 21.0947 0 0 0.8720
29.7456 16.8210 0.6080 48.7292 0 0 0.8722
29.6437 16.8685 0.6068 46.1595 0 0 0.8724
29.5774 16.9359 0.6064 48.4022 0 0 0.8725
29.5813 17.0436 0.6074 48.3215 0 0 0.8723
29.1599 16.9050 0.5997 56.1754 0 0 0.8739
29.0837 16.9652 0.5991 50.9995 0 0 0.8740
28.9986 17.0199 0.5983 51.0690 0 0 0.8741
28.9206 17.0785 0.5976 35.9822 0 0 0.8743
28.9698 17.2125 0.5996 35.8641 0 0 0.8739
29.0194 17.3473 0.6016 35.7457 0 0 0.8735
29.0561 17.4752 0.6033 28.9084 0 0 0.8732
28.9085 17.4921 0.6012 57.2890 0 0 0.8736
28.8626 17.5702 0.6012 57.2903 0 0 0.8736
28.8166 17.6482 0.6012 57.2880 0 0 0.8736
28.7705 17.7262 0.6012 57.2852 0 0 0.8735
28.8103 17.8574 0.6032 27.3382 0 0 0.8732
28.9021 18.0217 0.6060 27.2060 0 0 0.8726
16.4340 11.9131 0.3612 27.9880 0 0 0.9220
16.3509 11.9198 0.3600 45.1027 0 0 0.9222
16.2920 11.9439 0.3594 51.1767 0 0 0.9224
16.2465 11.9777 0.3591 57.1480 0 0 0.9224
16.2128 12.0200 0.3591 56.7996 0 0 0.9224
16.1890 12.0698 0.3592 54.2058 0 0 0.9224
16.1767 12.1282 0.3598 49.5243 0 0 0.9223
16.1818 12.1999 0.3607 34.5863 0 0 0.9221
16.2640 12.3304 0.3648 3.1718 0 0 0.9216
18.7729 16.8608 0.4489 41.7973 0 0 0.9040
18.6812 16.8692 0.4478 41.9012 0 0 0.9042
18.5900 16.8775 0.4467 42.0048 0 0 0.9044
18.4992 16.8857 0.4456 42.1081 0 0 0.9047
18.3984 16.8844 0.4443 57.0361 0 0 0.9049
18.3654 16.9449 0.4446 44.3801 0 0 0.9049
18.3580 17.0295 0.4455 44.2878 0 0 0.9047
18.3507 17.1144 0.4464 44.1953 0 0 0.9045
18.3433 17.1997 0.4474 44.1024 0 0 0.9043
17.6773 17.2097 0.4390 49.2496 0 0 0.9060
17.6039 17.2304 0.4383 49.3256 0 0 0.9062
17.5307 17.2511 0.4376 49.4013 0 0 0.9063
17.4522 17.2661 0.4368 45.3184 0 0 0.9065
17.4059 17.3130 0.4368 39.5449 0 0 0.9065
17.4004 17.4004 0.4378 49.4425 0 0 0.9062
17.3809 17.4744 0.4385 49.3650 0 0 0.9061
17.3614 17.5486 0.4392 49.2871 0 0 0.9060
11.3883 16.6306 0.3586 19.5381 0 0 0.9225
11.4087 16.7566 0.3607 19.4266 0 0 0.9221
11.4294 16.8841 0.3628 19.3151 0 0 0.9217
11.4504 17.0131 0.3649 19.2033 0 0 0.9212
11.4715 17.1436 0.3670 19.0915 0 0 0.9208
11.4930 17.2757 0.3692 18.9795 0 0 0.9203
11.5146 17.4092 0.3714 18.8673 0 0 0.9199
11.5366 17.5445 0.3736 18.7550 0 0 0.9194
-5.9530 18.0251 0.3378 33.7093 0 0 0.9269
-5.9794 17.9434 0.3365 33.8328 0 0 0.9271
-6.0056 17.8622 0.3353 33.9560 0 0 0.9274
-6.0316 17.7816 0.3341 34.0791 0 0 0.9276
-6.0352 17.6368 0.3317 55.1301 0 0 0.9281
-6.0779 17.6074 0.3314 55.1711 0 0 0.9282
-6.1206 17.5781 0.3312 55.2119 0 0 0.9282
-6.1738 17.5789 0.3315 50.3053 0 0 0.9282
-6.2294 17.5864 0.3320 50.2362 0 0 0.9281
-6.2852 17.5939 0.3324 50.1669 0 0 0.9280
-6.3412 17.6015 0.3329 50.0971 0 0 0.9279
-6.4010 17.6192 0.3335 39.3386 0 0 0.9277
-6.4660 17.6508 0.3345 39.2299 0 0 0.9276
-6.3299 17.1367 0.3250 42.8512 0 0 0.9295
-6.3608 17.0796 0.3243 42.9518 0 0 0.9297
-6.3917 17.0227 0.3235 43.0522 0 0 0.9298
-6.4187 16.9565 0.3226 37.9379 0 0 0.9300
-6.4449 16.8888 0.3216 38.0513 0 0 0.9302
-6.4820 16.8502 0.3212 46.7908 0 0 0.9303
-6.5395 16.8647 0.3219 46.7022 0 0 0.9302
-6.5972 16.8792 0.3225 46.6133 0 0 0.9301
-6.6529 16.8879 0.3230 53.9924 0 0 0.9300
-6.7045 16.8861 0.3233 53.9410 0 0 0.9299
-6.7562 16.8843 0.3236 53.8892 0 0 0.9298
-6.8081 16.8825 0.3239 53.8370 0 0 0.9298
-18.7157 11.3246 0.3893 33.9338 0 0 0.9162
-18.6780 11.2335 0.3878 34.0573 0 0 0.9165
-18.6530 11.1505 0.3866 56.6764 0 0 0.9167
-18.6755 11.0961 0.3865 56.6985 0 0 0.9168
-18.6980 11.0418 0.3864 56.7203 0 0 0.9168
-18.7205 10.9875 0.3863 56.7416 0 0 0.9168
-18.7866 10.9586 0.3870 45.6044 0 0 0.9167
-18.8543 10.9305 0.3878 45.5113 0 0 0.9165
-19.0500 10.9758 0.3915 7.4242 0 0 0.9158
-23.0634 -24.3342 -0.0604 27.5464 0 0 0.8745
-22.9446 -24.3392 -0.0603 50.8428 0 0 0.8748
-22.8626 -24.3828 -0.0602 57.0955 0 0 0.8749
-22.8051 -24.4526 -0.0602 54.5209 0 0 0.8748
-22.7765 -24.5535 -0.0602 43.5890 0 0 0.8746
-18.3929 -26.1018 -0.0575 42.0716 0 0 0.8801
-18.3318 -26.1639 -0.0576 40.3652 0 0 0.8800
-22.3252 -32.0457 -0.0704 55.5439 0 0 0.8554
-22.2293 -32.0911 -0.0703 55.4756 0 0 0.8554
-22.1332 -32.1362 -0.0703 55.5004 0 0 0.8555
-22.1780 -32.3868 -0.0707 16.2522 0 0 0.8547
-15.4691 -23.8017 -0.0512 32.4352 0 0 0.8927
-15.3454 -23.7504 -0.0510 32.5617 0 0 0.8931
-15.2562 -23.7518 -0.0508 56.3882 0 0 0.8932
-15.1852 -23.7813 -0.0509 56.4153 0 0 0.8933
-15.1203 -23.8201 -0.0508 46.8821 0 0 0.8933
-15.0849 -23.9057 -0.0508 46.7936 0 0 0.8931
-15.0729 -24.0292 -0.0509 9.5514 0 0 0.8927
-6.8720 -32.8201 -0.0604 8.4351 0 0 0.8745
-6.6675 -32.2743 -0.0594 39.6711 0 0 0.8765
-6.5626 -32.2021 -0.0592 39.6102 0 0 0.8768
-6.4582 -32.1297 -0.0590 39.7211 0 0 0.8771
-6.3741 -32.1574 -0.0591 54.7982 0 0 0.8771
-6.2923 -32.1967 -0.0591 54.9024 0 0 0.8770
-6.2102 -32.2353 -0.0591 54.8653 0 0 0.8769
17.2907 -33.0110 -0.0671 27.8147 0 0 0.8615
17.2796 -32.7758 -0.0668 56.7601 0 0 0.8623
17.3680 -32.7305 -0.0668 56.7581 0 0 0.8622
17.4567 -32.6857 -0.0668 56.6341 0 0 0.8622
17.5675 -32.6820 -0.0669 43.1737 0 0 0.8621
17.6957 -32.7101 -0.0670 43.0744 0 0 0.8618
17.8184 -32.7269 -0.0671 45.7669 0 0 0.8615
18.1054 -33.0428 -0.0679 37.4451 0 0 0.8601
18.1811 -32.9709 -0.0679 55.3885 0 0 0.8602
18.2795 -32.9403 -0.0679 55.1911 0 0 0.8601
18.3784 -32.9102 -0.0679 55.1591 0 0 0.8600
18.5434 -32.9976 -0.0682 17.7993 0 0 0.8595
16.4569 -24.3108 -0.0529 26.5019 0 0 0.8892
16.4662 -24.1847 -0.0527 44.0243 0 0 0.8896
16.5101 -24.1099 -0.0527 54.7483 0 0 0.8897
16.5708 -24.0600 -0.0526 57.0347 0 0 0.8897
16.6467 -24.0319 -0.0527 50.5749 0 0 0.8896
16.7446 -24.0355 -0.0528 36.2740 0 0 0.8894
23.1310 -27.3342 -0.0645 41.9414 0 0 0.8666
29.6789 -1.3534 -0.0535 57.2362 130 4 0.8880
29.6789 -1.2737 -0.0535 57.2430 130 4 0.8880
29.6789 -1.1940 -0.0535 57.2494 130 4 0.8880
29.6789 -1.1143 -0.0535 57.2553 130 4 0.8880
29.6789 -1.0346 -0.0535 57.2609 130 4 0.8880
29.6789 -0.9550 -0.0535 57.2660 130 4 0.8880
29.6789 -0.8754 -0.0535 57.2708 130 4 0.8880
29.6789 -0.7957 -0.0535 57.2751 130 4 0.8880
29.6789 -0.7161 -0.0535 57.2790 130 4 0.8880
29.6789 -0.6365 -0.0535 57.2825 130 4 0.8880
29.6789 -0.5570 -0.0535 57.2856 130 4 0.8880
29.6789 -0.4774 -0.0535 57.2883 130 4 0.8880
29.6789 -0.3978 -0.0535 57.2905 130 4 0.8881
29.6789 -0.3182 -0.0535 57.2924 130 4 0.8881
29.6789 -0.2387 -0.0535 57.2938 130 4 0.8881
29.6789 -0.1591 -0.0535 57.2949 130 4 0.8881
29.6789 -0.0796 -0.0535 57.2955 130 4 0.8881
29.6789 -0.0000 -0.0535 57.2957 130 4 0.8881
29.6789 0.0796 -0.0535 57.2955 130 4 0.8881
29.6789 0.1591 -0.0535 57.2949 130 4 0.8881
29.6789 0.2387 -0.0535 57.2938 130 4 0.8881
29.6789 0.3182 -0.0535 57.2924 130 4 0.8881
29.6789 0.3978 -0.0535 57.2905 130 4 0.8881
29.6789 0.4774 -0.0535 57.2883 130 4 0.8880
29.6789 0.5570 -0.0535 57.2856 130 4 0.8880
